-9.181626499024978516e-01 1.745297049898401065e-01 3.556919037596758537e-01 -9.181626499024978516e-01 1.745297049898401065e-01 3.556919037596758537e-01
-5.698160964365425185e-01 -8.161445585079750709e-01 -9.600872803887994245e-02 -5.698160964365425185e-01 -8.161445585079750709e-01 -9.600872803887994245e-02
-2.637204557940735217e-02 9.066732419573614310e-01 4.210084886679669736e-01 -2.637204557940735217e-02 9.066732419573614310e-01 4.210084886679669736e-01
-3.118998022409080195e-01 6.436808015693482599e-01 6.988515858557693416e-01 -3.118998022409080195e-01 6.436808015693482599e-01 6.988515858557693416e-01
6.743718877596661665e-01 -4.218007379772932830e-01 6.060583259400657008e-01 6.743718877596661665e-01 -4.218007379772932830e-01 6.060583259400657008e-01
9.620644118781378484e-01 -2.682437827794616203e-02 -2.715004974720571229e-01 9.620644118781378484e-01 -2.682437827794616203e-02 -2.715004974720571229e-01
7.130555413632075901e-01 4.388784747854082013e-01 -5.467517529018599554e-01 7.130555413632075901e-01 4.388784747854082013e-01 -5.467517529018599554e-01
1.800390393695941449e-01 -2.166745018001100254e-01 9.594988820069296764e-01 1.800390393695941449e-01 -2.166745018001100254e-01 9.594988820069296764e-01
-3.879864976180943947e-01 6.598952907133730506e-01 6.434319567447340793e-01 -3.879864976180943947e-01 6.598952907133730506e-01 6.434319567447340793e-01
8.452952523724818201e-01 4.753785836994363079e-01 2.439080533243222770e-01 8.452952523724818201e-01 4.753785836994363079e-01 2.439080533243222770e-01
-7.765170687435642982e-01 1.082057810280312310e-01 -6.207356529973258041e-01 -7.765170687435642982e-01 1.082057810280312310e-01 -6.207356529973258041e-01
4.840931804572785602e-01 -5.018172227353713266e-01 -7.168216428100616655e-01 4.840931804572785602e-01 -5.018172227353713266e-01 -7.168216428100616655e-01
5.713798447319139440e-01 -4.573191070050224294e-01 -6.814574875971813883e-01 5.713798447319139440e-01 -4.573191070050224294e-01 -6.814574875971813883e-01
-6.631922179888378732e-01 -3.858825847911581675e-01 6.413039160600382260e-01 -6.631922179888378732e-01 -3.858825847911581675e-01 6.413039160600382260e-01
6.019306981888066233e-01 -6.915807115398174831e-01 3.992437275700339017e-01 6.019306981888066233e-01 -6.915807115398174831e-01 3.992437275700339017e-01
-4.484719062326194550e-01 -5.556849060490538506e-01 7.000623075907849158e-01 -4.484719062326194550e-01 -5.556849060490538506e-01 7.000623075907849158e-01
2.994800926150710807e-01 -9.056881025565879373e-01 -3.000678840107944279e-01 2.994800926150710807e-01 -9.056881025565879373e-01 -3.000678840107944279e-01
9.267402056564101320e-01 1.723958198330087788e-01 3.338147278416865871e-01 9.267402056564101320e-01 1.723958198330087788e-01 3.338147278416865871e-01
7.070559909034672685e-01 -7.706993001002096499e-02 7.029452692889869292e-01 7.070559909034672685e-01 -7.706993001002096499e-02 7.029452692889869292e-01
7.454025511236846979e-01 -6.528788565358167872e-01 -1.346262807433478148e-01 7.454025511236846979e-01 -6.528788565358167872e-01 -1.346262807433478148e-01
-2.393710567444322090e-01 -4.373150281786807314e-01 -8.668662315041079092e-01 -2.393710567444322090e-01 -4.373150281786807314e-01 -8.668662315041079092e-01
-5.126432905653333094e-01 8.191474893748145192e-01 2.572824270899301546e-01 -5.126432905653333094e-01 8.191474893748145192e-01 2.572824270899301546e-01
4.301844114596185542e-01 2.326319542650989447e-01 -8.722521114860899427e-01 4.301844114596185542e-01 2.326319542650989447e-01 -8.722521114860899427e-01
1.076423961642109794e-01 -6.892542721099721437e-01 -7.164786548992085891e-01 1.076423961642109794e-01 -6.892542721099721437e-01 -7.164786548992085891e-01
-1.921784980456167635e-01 8.663271289214208304e-01 -4.610257374417382481e-01 -1.921784980456167635e-01 8.663271289214208304e-01 -4.610257374417382481e-01
6.426088652125475642e-01 2.439637475893331464e-01 7.263164160422165283e-01 6.426088652125475642e-01 2.439637475893331464e-01 7.263164160422165283e-01
5.623881591006884006e-01 7.746505735632469580e-01 2.891989754156670256e-01 5.623881591006884006e-01 7.746505735632469580e-01 2.891989754156670256e-01
-1.143063038986304319e-01 2.338757088085103020e-01 9.655238069143354807e-01 -1.143063038986304319e-01 2.338757088085103020e-01 9.655238069143354807e-01
3.071335182051025403e-01 8.645769002729177810e-01 -3.977131950406336269e-01 3.071335182051025403e-01 8.645769002729177810e-01 -3.977131950406336269e-01
-8.868055817504338911e-01 3.932076573235479544e-01 2.428242129574435804e-01 -8.868055817504338911e-01 3.932076573235479544e-01 2.428242129574435804e-01
1.935570297921125893e-01 -8.669683458099459727e-01 4.592402024884375544e-01 1.935570297921125893e-01 -8.669683458099459727e-01 4.592402024884375544e-01
3.237874884968978129e-01 7.879480389599133883e-01 -5.237361455848718039e-01 3.237874884968978129e-01 7.879480389599133883e-01 -5.237361455848718039e-01
-9.715070753569522433e-01 2.325156479372593454e-01 4.593991723651149467e-02 -9.715070753569522433e-01 2.325156479372593454e-01 4.593991723651149467e-02
9.288204642773006947e-01 3.587929368398519725e-01 -9.252120629095546278e-02 9.288204642773006947e-01 3.587929368398519725e-01 -9.252120629095546278e-02
-1.409722314261716014e-02 6.963523143204992660e-01 7.175616507591191517e-01 -1.409722314261716014e-02 6.963523143204992660e-01 7.175616507591191517e-01
7.631314714549599643e-01 3.029469541984380343e-01 5.708357909389329965e-01 7.631314714549599643e-01 3.029469541984380343e-01 5.708357909389329965e-01
3.264168980538038611e-01 -2.899117846208588284e-02 -9.447812023089325884e-01 3.264168980538038611e-01 -2.899117846208588284e-02 -9.447812023089325884e-01
-9.300187754405648821e-01 -9.877389908613783132e-02 -3.539898221522107535e-01 -9.300187754405648821e-01 -9.877389908613783132e-02 -3.539898221522107535e-01
6.613434710791512572e-01 -7.494993046180647989e-01 2.959063429562076852e-02 6.613434710791512572e-01 -7.494993046180647989e-01 2.959063429562076852e-02
5.806503345206159850e-01 -3.036815082295741819e-01 -7.553957443489522916e-01 5.806503345206159850e-01 -3.036815082295741819e-01 -7.553957443489522916e-01
5.898586253330557749e-01 3.330881927926469532e-01 -7.356079512500706130e-01 5.898586253330557749e-01 3.330881927926469532e-01 -7.356079512500706130e-01
5.639462399338378978e-02 9.614871408932051944e-01 2.690020897347354389e-01 5.639462399338378978e-02 9.614871408932051944e-01 2.690020897347354389e-01
9.217198612917084644e-01 -3.124665740680189208e-01 2.297762768228891750e-01 9.217198612917084644e-01 -3.124665740680189208e-01 2.297762768228891750e-01
3.535960331675002677e-01 2.816934930562999262e-01 -8.919745631451315715e-01 3.535960331675002677e-01 2.816934930562999262e-01 -8.919745631451315715e-01
-4.323569290523652797e-01 6.245018577867459397e-01 6.504344052410749866e-01 -4.323569290523652797e-01 6.245018577867459397e-01 6.504344052410749866e-01
9.720818132257282862e-01 -3.527469906281024276e-02 -2.319755245749184069e-01 9.720818132257282862e-01 -3.527469906281024276e-02 -2.319755245749184069e-01
7.280315334745326439e-01 6.832202731244526595e-01 -5.639277133169200151e-02 7.280315334745326439e-01 6.832202731244526595e-01 -5.639277133169200151e-02
3.196459959948405594e-01 -9.468758573249236310e-01 3.539135571940095482e-02 3.196459959948405594e-01 -9.468758573249236310e-01 3.539135571940095482e-02
4.723482560145011999e-01 -6.482679636833289794e-02 -8.790248071088085924e-01 4.723482560145011999e-01 -6.482679636833289794e-02 -8.790248071088085924e-01
6.878376916992190448e-01 -3.176287699313287693e-01 6.526800704708251022e-01 6.878376916992190448e-01 -3.176287699313287693e-01 6.526800704708251022e-01
7.509717771033728173e-01 6.601249256649029951e-01 1.662746252764932611e-02 7.509717771033728173e-01 6.601249256649029951e-01 1.662746252764932611e-02
-6.138859583811809850e-01 -5.382989609717807600e-01 5.773891744041622642e-01 -6.138859583811809850e-01 -5.382989609717807600e-01 5.773891744041622642e-01
4.258521214589855441e-01 4.386638428031017223e-01 -7.913431642884755091e-01 4.258521214589855441e-01 4.386638428031017223e-01 -7.913431642884755091e-01
7.937886644020466509e-01 4.859855487819285114e-01 -3.656741755196046828e-01 7.937886644020466509e-01 4.859855487819285114e-01 -3.656741755196046828e-01
2.280480131252673182e-01 -1.801008146183071812e-01 -9.568478459417880666e-01 2.280480131252673182e-01 -1.801008146183071812e-01 -9.568478459417880666e-01
-5.161453677107605831e-01 8.338148626698278498e-01 1.958232217629460037e-01 -5.161453677107605831e-01 8.338148626698278498e-01 1.958232217629460037e-01
5.013817630000394487e-01 -6.381462966905241396e-01 5.842821508065618730e-01 5.013817630000394487e-01 -6.381462966905241396e-01 5.842821508065618730e-01
7.503366945784789577e-01 -4.604626125288469041e-01 4.743089997376723210e-01 7.503366945784789577e-01 -4.604626125288469041e-01 4.743089997376723210e-01
-5.550317272997272733e-01 5.778277300119212256e-01 5.983768846805090913e-01 -5.550317272997272733e-01 5.778277300119212256e-01 5.983768846805090913e-01
-5.380910356462696997e-01 -4.279019924948595510e-01 7.261941353219908413e-01 -5.380910356462696997e-01 -4.279019924948595510e-01 7.261941353219908413e-01
-3.976510303997997098e-01 9.055981125271362897e-01 -1.475320867108771972e-01 -3.976510303997997098e-01 9.055981125271362897e-01 -1.475320867108771972e-01
9.440332729426461622e-01 3.294957113211832156e-01 -1.528907446979037126e-02 9.440332729426461622e-01 3.294957113211832156e-01 -1.528907446979037126e-02
-5.177637929035886488e-01 6.741584725049408755e-01 5.267171999355010348e-01 -5.177637929035886488e-01 6.741584725049408755e-01 5.267171999355010348e-01
-4.243180438223953521e-01 4.437860977884701685e-01 -7.893086196770044971e-01 -4.243180438223953521e-01 4.437860977884701685e-01 -7.893086196770044971e-01
4.972988247142992035e-01 8.207851463269987269e-01 2.810793882637858121e-01 4.972988247142992035e-01 8.207851463269987269e-01 2.810793882637858121e-01
-5.411175546470498032e-01 8.381451897475957757e-01 6.858886903692117121e-02 -5.411175546470498032e-01 8.381451897475957757e-01 6.858886903692117121e-02
1.907536499752466308e-01 5.679634529328850268e-02 9.799934796632305822e-01 1.907536499752466308e-01 5.679634529328850268e-02 9.799934796632305822e-01
-9.490696246136637315e-01 -1.695318041560601730e-01 2.655669689838525693e-01 -9.490696246136637315e-01 -1.695318041560601730e-01 2.655669689838525693e-01
9.413320218254300764e-01 -2.400316753870320452e-01 -2.372315735667208658e-01 9.413320218254300764e-01 -2.400316753870320452e-01 -2.372315735667208658e-01
-4.556248940164878136e-02 9.000064556486543355e-01 4.334886842240188720e-01 -4.556248940164878136e-02 9.000064556486543355e-01 4.334886842240188720e-01
9.373411221886347455e-01 -1.104803447777469999e-01 3.304326165376855196e-01 9.373411221886347455e-01 -1.104803447777469999e-01 3.304326165376855196e-01
5.999999732640293182e-01 7.976432091816039183e-01 6.136239018842049725e-02 5.999999732640293182e-01 7.976432091816039183e-01 6.136239018842049725e-02
-8.624047968865821145e-01 -5.025364524578682657e-01 -6.095145821121670388e-02 -8.624047968865821145e-01 -5.025364524578682657e-01 -6.095145821121670388e-02
-5.716643935517771169e-01 -7.861694635063343206e-01 2.348135340972523633e-01 -5.716643935517771169e-01 -7.861694635063343206e-01 2.348135340972523633e-01
-7.971192196067479196e-01 1.695689299035798084e-02 6.035838081937277000e-01 -7.971192196067479196e-01 1.695689299035798084e-02 6.035838081937277000e-01
1.298865801822378652e-01 8.309891615186293379e-01 5.409126451906338673e-01 1.298865801822378652e-01 8.309891615186293379e-01 5.409126451906338673e-01
8.593140733489761374e-01 1.874727927281636675e-01 4.758500555123362230e-01 8.593140733489761374e-01 1.874727927281636675e-01 4.758500555123362230e-01
6.267565152675027562e-01 -1.468445523557649623e-01 -7.652535187852268495e-01 6.267565152675027562e-01 -1.468445523557649623e-01 -7.652535187852268495e-01
-7.255241420726173951e-01 6.641365095172893085e-01 1.803813072244016269e-01 -7.255241420726173951e-01 6.641365095172893085e-01 1.803813072244016269e-01
7.914632467462812127e-01 -2.908674646420427584e-02 6.105242748900016059e-01 7.914632467462812127e-01 -2.908674646420427584e-02 6.105242748900016059e-01
8.464667864343226045e-01 3.679370549881540997e-01 3.848588092147494089e-01 8.464667864343226045e-01 3.679370549881540997e-01 3.848588092147494089e-01
-1.258197428117954486e-01 7.715081920168598284e-01 6.236541525313931134e-01 -1.258197428117954486e-01 7.715081920168598284e-01 6.236541525313931134e-01
4.102887660520465052e-01 3.704952190523974065e-01 -8.333045188349844645e-01 4.102887660520465052e-01 3.704952190523974065e-01 -8.333045188349844645e-01
7.584947843614544549e-01 -6.086982077904147248e-01 -2.327491222952468852e-01 7.584947843614544549e-01 -6.086982077904147248e-01 -2.327491222952468852e-01
6.146581920227993656e-01 -7.859245266820399367e-01 -6.721566289842774433e-02 6.146581920227993656e-01 -7.859245266820399367e-01 -6.721566289842774433e-02
2.229469473364008580e-01 6.221183197838675571e-01 7.505087973253062872e-01 2.229469473364008580e-01 6.221183197838675571e-01 7.505087973253062872e-01
2.280435283049376816e-01 -8.037949233983547881e-01 5.494632565670503066e-01 2.280435283049376816e-01 -8.037949233983547881e-01 5.494632565670503066e-01
-2.202634156534354071e-01 -3.739781053638944752e-01 -9.009019949101644276e-01 -2.202634156534354071e-01 -3.739781053638944752e-01 -9.009019949101644276e-01
1.408611186147729899e-01 8.295491279572164700e-01 5.403761556249651044e-01 1.408611186147729899e-01 8.295491279572164700e-01 5.403761556249651044e-01
2.528585896896211604e-01 8.560034295897656076e-01 4.509109248518327062e-01 2.528585896896211604e-01 8.560034295897656076e-01 4.509109248518327062e-01
4.066915156819431720e-01 7.173853348511409767e-01 -5.656503269802288791e-01 4.066915156819431720e-01 7.173853348511409767e-01 -5.656503269802288791e-01
-1.532628778304186423e-01 9.702780302031275284e-01 -1.872726204875583278e-01 -1.532628778304186423e-01 9.702780302031275284e-01 -1.872726204875583278e-01
5.359047435768254930e-01 -6.632807366330005783e-01 5.223645951090494233e-01 5.359047435768254930e-01 -6.632807366330005783e-01 5.223645951090494233e-01
-3.734573288768326949e-01 -7.264973786846264936e-01 5.768285553546631528e-01 -3.734573288768326949e-01 -7.264973786846264936e-01 5.768285553546631528e-01
-9.478526237988145198e-01 -1.073176581639631727e-01 3.000971905964895936e-01 -9.478526237988145198e-01 -1.073176581639631727e-01 3.000971905964895936e-01
9.568946651554351146e-02 7.891787973815382884e-01 6.066632935668676563e-01 9.568946651554351146e-02 7.891787973815382884e-01 6.066632935668676563e-01
-2.115108727192031857e-02 4.715169801248921821e-01 -8.816032945498319950e-01 -2.115108727192031857e-02 4.715169801248921821e-01 -8.816032945498319950e-01
7.133220150344877775e-01 -3.068686933657599480e-01 6.300819850615705375e-01 7.133220150344877775e-01 -3.068686933657599480e-01 6.300819850615705375e-01
-9.786951768526493955e-01 -1.271415072988283657e-01 1.612165870099715459e-01 -9.786951768526493955e-01 -1.271415072988283657e-01 1.612165870099715459e-01
-4.099057642289703485e-01 4.122400786091628272e-02 9.111958327537208469e-01 -4.099057642289703485e-01 4.122400786091628272e-02 9.111958327537208469e-01
-4.175048079030465598e-01 8.067659205571359182e-01 4.181130048269696142e-01 -4.175048079030465598e-01 8.067659205571359182e-01 4.181130048269696142e-01
-7.144128668662892423e-01 4.359935680117301704e-01 5.472877344763816820e-01 -7.144128668662892423e-01 4.359935680117301704e-01 5.472877344763816820e-01
-9.181001796432465278e-01 3.875391937220148963e-01 8.309893782912775029e-02 -9.181001796432465278e-01 3.875391937220148963e-01 8.309893782912775029e-02
4.802824157576281172e-02 6.273912920648225811e-01 7.772216251831729483e-01 4.802824157576281172e-02 6.273912920648225811e-01 7.772216251831729483e-01
7.197214822025873593e-01 3.241712342521012313e-02 -6.935056727705587454e-01 7.197214822025873593e-01 3.241712342521012313e-02 -6.935056727705587454e-01
-6.273046838193715447e-01 -7.786180477022608404e-01 -1.558106063778105267e-02 -6.273046838193715447e-01 -7.786180477022608404e-01 -1.558106063778105267e-02
-6.754571833022280369e-01 -4.831013641510565337e-01 -5.571092042686144330e-01 -6.754571833022280369e-01 -4.831013641510565337e-01 -5.571092042686144330e-01
8.548558337815104213e-01 -3.536529760884281059e-01 -3.796723270841799724e-01 8.548558337815104213e-01 -3.536529760884281059e-01 -3.796723270841799724e-01
3.706952792375279304e-01 -7.657528431752176346e-01 -5.255545577007980640e-01 3.706952792375279304e-01 -7.657528431752176346e-01 -5.255545577007980640e-01
5.822897237763550171e-01 -7.950711022545620121e-01 1.697074540029750722e-01 5.822897237763550171e-01 -7.950711022545620121e-01 1.697074540029750722e-01
-8.487206823962036850e-01 -4.983615957328331181e-01 1.769432767062559531e-01 -8.487206823962036850e-01 -4.983615957328331181e-01 1.769432767062559531e-01
1.141971651847251308e-02 -1.957177271829135534e-01 9.805937799828186030e-01 1.141971651847251308e-02 -1.957177271829135534e-01 9.805937799828186030e-01
1.636188049043066917e-01 -4.990452801894237206e-02 9.852605872381645646e-01 1.636188049043066917e-01 -4.990452801894237206e-02 9.852605872381645646e-01
-4.068636182729036821e-01 7.798585581614090323e-01 -4.756917335715316053e-01 -4.068636182729036821e-01 7.798585581614090323e-01 -4.756917335715316053e-01
-4.417897430033614903e-01 -7.783280148412538013e-01 -4.461247855592609945e-01 -4.417897430033614903e-01 -7.783280148412538013e-01 -4.461247855592609945e-01
-8.804286251375196271e-01 3.578532619042390506e-02 4.728264443407345641e-01 -8.804286251375196271e-01 3.578532619042390506e-02 4.728264443407345641e-01
-5.688588618867571611e-01 -8.028910975193916943e-01 -1.782287316259928700e-01 -5.688588618867571611e-01 -8.028910975193916943e-01 -1.782287316259928700e-01
7.029354237224629820e-01 4.823579282450015104e-01 5.226974451203214578e-01 7.029354237224629820e-01 4.823579282450015104e-01 5.226974451203214578e-01
2.808995527653066482e-01 5.374109882192781296e-01 7.951634240817604393e-01 2.808995527653066482e-01 5.374109882192781296e-01 7.951634240817604393e-01
-9.741916949409910043e-01 -2.233365022717291593e-01 3.273145675079443956e-02 -9.741916949409910043e-01 -2.233365022717291593e-01 3.273145675079443956e-02
7.208088509797520027e-01 8.359273868225625126e-02 6.880747447689458118e-01 7.208088509797520027e-01 8.359273868225625126e-02 6.880747447689458118e-01
3.755688861791164901e-01 -9.250465908999933040e-01 -5.689302592127183644e-02 3.755688861791164901e-01 -9.250465908999933040e-01 -5.689302592127183644e-02
-3.236143908674908309e-01 -9.355032301458944266e-01 1.418006784541608056e-01 -3.236143908674908309e-01 -9.355032301458944266e-01 1.418006784541608056e-01
6.288766316446026128e-02 -1.123316337249414959e-01 -9.916787513536825527e-01 6.288766316446026128e-02 -1.123316337249414959e-01 -9.916787513536825527e-01
-2.629853448474784861e-01 4.109966285604071956e-01 -8.728805644000968700e-01 -2.629853448474784861e-01 4.109966285604071956e-01 -8.728805644000968700e-01
-5.700519718656269497e-01 -8.215885634369656243e-01 -5.742978468853640953e-03 -5.700519718656269497e-01 -8.215885634369656243e-01 -5.742978468853640953e-03
-9.310237312728669723e-01 -3.098186425622787010e-01 -1.928917326575076141e-01 -9.310237312728669723e-01 -3.098186425622787010e-01 -1.928917326575076141e-01
-7.944198649216307473e-01 6.073215050348383937e-01 -7.593927845103280207e-03 -7.944198649216307473e-01 6.073215050348383937e-01 -7.593927845103280207e-03
3.953344237692457130e-01 -8.607472312831709882e-01 3.206632146370919645e-01 3.953344237692457130e-01 -8.607472312831709882e-01 3.206632146370919645e-01
-9.326797185167037263e-01 -1.523287016842366226e-01 3.269625503185296100e-01 -9.326797185167037263e-01 -1.523287016842366226e-01 3.269625503185296100e-01
4.896130283694491991e-01 -2.190708704261553896e-01 -8.439709925001116497e-01 4.896130283694491991e-01 -2.190708704261553896e-01 -8.439709925001116497e-01
-9.369243336965965563e-01 -3.461958704160883471e-01 4.817896049143732817e-02 -9.369243336965965563e-01 -3.461958704160883471e-01 4.817896049143732817e-02
-2.271043274555781255e-01 -5.392276964780415849e-01 -8.109606129781734563e-01 -2.271043274555781255e-01 -5.392276964780415849e-01 -8.109606129781734563e-01
2.098978305410794526e-02 -2.631899966125901269e-01 -9.645156580846193650e-01 2.098978305410794526e-02 -2.631899966125901269e-01 -9.645156580846193650e-01
-9.070645716272220938e-01 -2.727989192179492567e-02 -4.201067369079662384e-01 -9.070645716272220938e-01 -2.727989192179492567e-02 -4.201067369079662384e-01
-5.275094460262335083e-01 7.390190899982521655e-01 -4.190281243201360861e-01 -5.275094460262335083e-01 7.390190899982521655e-01 -4.190281243201360861e-01
-4.476330992647030715e-01 -8.311085869860561637e-01 3.299744309499110240e-01 -4.476330992647030715e-01 -8.311085869860561637e-01 3.299744309499110240e-01
-6.997238661236296897e-01 6.800572548301851983e-01 -2.188804270140053687e-01 -6.997238661236296897e-01 6.800572548301851983e-01 -2.188804270140053687e-01
2.075564195155649716e-01 -6.714864724183559064e-01 7.113552207420927864e-01 2.075564195155649716e-01 -6.714864724183559064e-01 7.113552207420927864e-01
-3.265053220962069735e-01 4.987134579015338742e-01 8.029191500710061158e-01 -3.265053220962069735e-01 4.987134579015338742e-01 8.029191500710061158e-01
-6.737269049025899070e-01 -4.630269155739160647e-01 -5.759324032076005295e-01 -6.737269049025899070e-01 -4.630269155739160647e-01 -5.759324032076005295e-01
-8.384148130508640717e-01 -1.283208177255640570e-01 5.297115903915329271e-01 -8.384148130508640717e-01 -1.283208177255640570e-01 5.297115903915329271e-01
-7.788904843412022272e-01 7.728393216355917972e-02 6.223799540731254076e-01 -7.788904843412022272e-01 7.728393216355917972e-02 6.223799540731254076e-01
-5.520075755904064740e-01 7.701416411177797183e-01 3.196396238065840056e-01 -5.520075755904064740e-01 7.701416411177797183e-01 3.196396238065840056e-01
8.028339000943930381e-01 -5.207602254442216250e-01 2.902869553640148870e-01 8.028339000943930381e-01 -5.207602254442216250e-01 2.902869553640148870e-01
-6.566530202255205229e-01 7.421111080986028119e-01 1.344541344301695418e-01 -6.566530202255205229e-01 7.421111080986028119e-01 1.344541344301695418e-01
6.187426858762900411e-02 7.172016786307481295e-01 -6.941133387682324463e-01 6.187426858762900411e-02 7.172016786307481295e-01 -6.941133387682324463e-01
7.582223449506106938e-01 -6.893186626230256298e-02 6.483419417492540804e-01 7.582223449506106938e-01 -6.893186626230256298e-02 6.483419417492540804e-01
1.321125196412415437e-01 -7.957722697018739799e-01 5.910099634757188802e-01 1.321125196412415437e-01 -7.957722697018739799e-01 5.910099634757188802e-01
-1.371188659214661321e-01 -8.834030674186311716e-01 4.481042703252943182e-01 -1.371188659214661321e-01 -8.834030674186311716e-01 4.481042703252943182e-01
4.697260458190045673e-01 -4.855230270259235925e-01 -7.373091835226431856e-01 4.697260458190045673e-01 -4.855230270259235925e-01 -7.373091835226431856e-01
6.605846555022528710e-01 -5.882578401237917309e-03 7.507285182982748051e-01 6.605846555022528710e-01 -5.882578401237917309e-03 7.507285182982748051e-01
-1.273043948951579629e-01 2.902370589988598204e-01 9.484492820515338929e-01 -1.273043948951579629e-01 2.902370589988598204e-01 9.484492820515338929e-01
6.649769733645917447e-02 -4.394744868810411820e-01 8.957902832859900855e-01 6.649769733645917447e-02 -4.394744868810411820e-01 8.957902832859900855e-01
3.460554234658476669e-01 -4.716988493676455563e-01 -8.110153139091222929e-01 3.460554234658476669e-01 -4.716988493676455563e-01 -8.110153139091222929e-01
-9.735375617023281913e-01 -1.590361683661011272e-01 -1.641100640000940636e-01 -9.735375617023281913e-01 -1.590361683661011272e-01 -1.641100640000940636e-01
-7.176161129999218957e-01 6.919916565769006489e-01 -7.857901495208619025e-02 -7.176161129999218957e-01 6.919916565769006489e-01 -7.857901495208619025e-02
-9.860812158799108218e-01 1.411427917434046331e-01 8.787802926599251607e-02 -9.860812158799108218e-01 1.411427917434046331e-01 8.787802926599251607e-02
-7.382220524839426812e-01 -2.283880383521154633e-01 6.347181304831835957e-01 -7.382220524839426812e-01 -2.283880383521154633e-01 6.347181304831835957e-01
-2.552457024023027099e-01 -2.973206101884083297e-01 -9.200272203377177771e-01 -2.552457024023027099e-01 -2.973206101884083297e-01 -9.200272203377177771e-01
1.837609013370535560e-01 4.854846994671206846e-03 -9.829589826643084782e-01 1.837609013370535560e-01 4.854846994671206846e-03 -9.829589826643084782e-01
-9.617423190726056559e-01 2.580833711701837063e-01 -9.189496847096323418e-02 -9.617423190726056559e-01 2.580833711701837063e-01 -9.189496847096323418e-02
-6.138370455031317841e-01 7.854932188546167593e-01 -7.876855147455415207e-02 -6.138370455031317841e-01 7.854932188546167593e-01 -7.876855147455415207e-02
-5.581110336494308211e-01 7.934998483796636970e-01 2.426315411075292694e-01 -5.581110336494308211e-01 7.934998483796636970e-01 2.426315411075292694e-01
-9.158967066182559513e-01 3.701378120116804449e-01 1.553422766829372081e-01 -9.158967066182559513e-01 3.701378120116804449e-01 1.553422766829372081e-01
-6.201977228285460164e-01 2.748290431814489065e-01 7.347270116323854072e-01 -6.201977228285460164e-01 2.748290431814489065e-01 7.347270116323854072e-01
-2.562762887018909530e-01 9.190511833940411268e-01 -2.994451304516364543e-01 -2.562762887018909530e-01 9.190511833940411268e-01 -2.994451304516364543e-01
9.556223144935529490e-01 -5.018813519627704500e-02 2.902880347646196735e-01 9.556223144935529490e-01 -5.018813519627704500e-02 2.902880347646196735e-01
-4.454014464676713247e-01 -8.896231986094356170e-01 -1.009361975726394411e-01 -4.454014464676713247e-01 -8.896231986094356170e-01 -1.009361975726394411e-01
5.673756220536666506e-01 -8.002743370325190453e-01 1.940254854043075849e-01 5.673756220536666506e-01 -8.002743370325190453e-01 1.940254854043075849e-01
-3.234310928511166527e-01 8.005059214168092074e-01 -5.045617880436029656e-01 -3.234310928511166527e-01 8.005059214168092074e-01 -5.045617880436029656e-01
5.310727300744729762e-01 -6.136255260515429549e-02 8.451014096006618237e-01 5.310727300744729762e-01 -6.136255260515429549e-02 8.451014096006618237e-01
-8.425112501754886685e-01 3.635025557755253711e-01 -3.975433124483370717e-01 -8.425112501754886685e-01 3.635025557755253711e-01 -3.975433124483370717e-01
-7.835351967755599389e-02 9.952645478304715798e-01 5.752569674454850734e-02 -7.835351967755599389e-02 9.952645478304715798e-01 5.752569674454850734e-02
-5.846665671264232866e-01 -5.341227806061872307e-01 -6.106372577251724110e-01 -5.846665671264232866e-01 -5.341227806061872307e-01 -6.106372577251724110e-01
-5.652659668459268927e-01 -8.014048501656035883e-01 -1.955112601790136018e-01 -5.652659668459268927e-01 -8.014048501656035883e-01 -1.955112601790136018e-01
-4.204621062383256946e-02 -3.090171426950757971e-01 -9.501265819314537175e-01 -4.204621062383256946e-02 -3.090171426950757971e-01 -9.501265819314537175e-01
-3.861796372270496769e-01 5.735012941364456829e-01 -7.224690674451096362e-01 -3.861796372270496769e-01 5.735012941364456829e-01 -7.224690674451096362e-01
-9.530471363953456343e-03 5.510079966653012029e-01 8.344455391015475065e-01 -9.530471363953456343e-03 5.510079966653012029e-01 8.344455391015475065e-01
-9.928327982379860916e-01 1.124179281475956999e-01 -4.056160960726769293e-02 -9.928327982379860916e-01 1.124179281475956999e-01 -4.056160960726769293e-02
4.003060431731341184e-01 8.194988520318012837e-01 4.100935299631396913e-01 4.003060431731341184e-01 8.194988520318012837e-01 4.100935299631396913e-01
-3.264200835937203782e-01 -8.790832541274917755e-01 3.473651700146239141e-01 -3.264200835937203782e-01 -8.790832541274917755e-01 3.473651700146239141e-01
-8.078031256301363427e-01 -2.062381409975501401e-01 -5.521955626587893295e-01 -8.078031256301363427e-01 -2.062381409975501401e-01 -5.521955626587893295e-01
-7.946959378107805172e-01 4.257498378128820038e-01 4.326608857169189082e-01 -7.946959378107805172e-01 4.257498378128820038e-01 4.326608857169189082e-01
-7.132620921437833328e-01 6.416287844020917008e-01 2.820810006671261028e-01 -7.132620921437833328e-01 6.416287844020917008e-01 2.820810006671261028e-01
-8.511558384454162018e-01 -4.888523416137077748e-01 -1.911991809058692926e-01 -8.511558384454162018e-01 -4.888523416137077748e-01 -1.911991809058692926e-01
-9.947386188873557078e-01 -5.580158589573023381e-02 8.591427765859011023e-02 -9.947386188873557078e-01 -5.580158589573023381e-02 8.591427765859011023e-02
6.390107765540263829e-01 6.502585459068188634e-01 -4.108881245825556361e-01 6.390107765540263829e-01 6.502585459068188634e-01 -4.108881245825556361e-01
8.533224347608733273e-01 -4.310070712169564722e-01 -2.933832423550406521e-01 8.533224347608733273e-01 -4.310070712169564722e-01 -2.933832423550406521e-01
8.681385211260433943e-01 4.066462144597313144e-01 -2.845599486973817704e-01 8.681385211260433943e-01 4.066462144597313144e-01 -2.845599486973817704e-01
7.873729229248103145e-01 -4.554575628805043741e-02 -6.147922123197318012e-01 7.873729229248103145e-01 -4.554575628805043741e-02 -6.147922123197318012e-01
9.847961008281130857e-01 -5.603723412743384646e-02 1.644276989594278537e-01 9.847961008281130857e-01 -5.603723412743384646e-02 1.644276989594278537e-01
6.515343104319202272e-01 5.596135793376576517e-01 -5.121871573467041694e-01 6.515343104319202272e-01 5.596135793376576517e-01 -5.121871573467041694e-01
-5.911168127932545646e-01 -7.934991559462196697e-01 -1.447066105807931491e-01 -5.911168127932545646e-01 -7.934991559462196697e-01 -1.447066105807931491e-01
-4.521446492086205193e-01 -7.071231958910462190e-01 5.436377488961251503e-01 -4.521446492086205193e-01 -7.071231958910462190e-01 5.436377488961251503e-01
7.433559915678025765e-02 5.064363397176770976e-01 -8.590671990661521429e-01 7.433559915678025765e-02 5.064363397176770976e-01 -8.590671990661521429e-01
6.693441214730094790e-01 -7.275811943523663450e-01 -1.503464421737653878e-01 6.693441214730094790e-01 -7.275811943523663450e-01 -1.503464421737653878e-01
3.362551992775204002e-01 -7.999951934351353655e-01 -4.969307109039606263e-01 3.362551992775204002e-01 -7.999951934351353655e-01 -4.969307109039606263e-01
-2.809064496078359507e-01 -1.222251417561495135e-01 9.519204700453759438e-01 -2.809064496078359507e-01 -1.222251417561495135e-01 9.519204700453759438e-01
-8.608043797039079958e-01 4.912576547286807704e-01 1.329726910047567545e-01 -8.608043797039079958e-01 4.912576547286807704e-01 1.329726910047567545e-01
-8.572728982858602853e-01 1.502043376742324271e-02 5.146431428028546140e-01 -8.572728982858602853e-01 1.502043376742324271e-02 5.146431428028546140e-01
-5.079890318786141057e-01 1.727543059436140518e-02 -8.611902826836863589e-01 -5.079890318786141057e-01 1.727543059436140518e-02 -8.611902826836863589e-01
-7.821444097224937719e-01 -2.718625021301945832e-01 5.606611296276582390e-01 -7.821444097224937719e-01 -2.718625021301945832e-01 5.606611296276582390e-01
6.933685846781065809e-01 4.765156724744331052e-01 -5.405301283626271491e-01 6.933685846781065809e-01 4.765156724744331052e-01 -5.405301283626271491e-01
-9.171182489836363638e-01 3.981179007913586143e-01 1.990614102911008459e-02 -9.171182489836363638e-01 3.981179007913586143e-01 1.990614102911008459e-02
9.710654317083046161e-01 -4.193447144010353095e-02 -2.351030145408665173e-01 9.710654317083046161e-01 -4.193447144010353095e-02 -2.351030145408665173e-01
4.058487000050703397e-01 1.875318650423726807e-01 -8.944935060121586012e-01 4.058487000050703397e-01 1.875318650423726807e-01 -8.944935060121586012e-01
3.509298088423559170e-01 -4.805671750418435972e-01 -8.036811927239367881e-01 3.509298088423559170e-01 -4.805671750418435972e-01 -8.036811927239367881e-01
1.101327249707085010e-01 -6.614201894265866466e-01 -7.418855140177791352e-01 1.101327249707085010e-01 -6.614201894265866466e-01 -7.418855140177791352e-01
2.611941763973348318e-01 7.597226541544025435e-01 -5.954822339757147587e-01 2.611941763973348318e-01 7.597226541544025435e-01 -5.954822339757147587e-01
-3.739553364767343457e-01 2.441204384342211264e-01 8.947416486669523827e-01 -3.739553364767343457e-01 2.441204384342211264e-01 8.947416486669523827e-01
-2.414184864359845625e-02 -8.674058194021180279e-01 4.970154078209343962e-01 -2.414184864359845625e-02 -8.674058194021180279e-01 4.970154078209343962e-01
7.981697419245781244e-01 5.054505456703510813e-01 -3.277877498589549243e-01 7.981697419245781244e-01 5.054505456703510813e-01 -3.277877498589549243e-01
-5.375764209661185733e-01 -8.070872431209130671e-01 2.441757023389973802e-01 -5.375764209661185733e-01 -8.070872431209130671e-01 2.441757023389973802e-01
4.283808643085985080e-01 8.700456754320274877e-01 2.439474487594510410e-01 4.283808643085985080e-01 8.700456754320274877e-01 2.439474487594510410e-01
-6.095948370961544738e-01 -5.748699590776192858e-01 -5.458192601363653917e-01 -6.095948370961544738e-01 -5.748699590776192858e-01 -5.458192601363653917e-01
-5.554546661191513968e-01 4.349286491369246388e-01 7.087363290014081496e-01 -5.554546661191513968e-01 4.349286491369246388e-01 7.087363290014081496e-01
6.346597982952244532e-01 2.618489832787086469e-01 7.270777471383452761e-01 6.346597982952244532e-01 2.618489832787086469e-01 7.270777471383452761e-01
-7.032920004300659000e-01 6.146690706813514593e-01 -3.571586421729143757e-01 -7.032920004300659000e-01 6.146690706813514593e-01 -3.571586421729143757e-01
-8.460387384177183723e-01 -3.323113306657496935e-01 -4.168784386457453639e-01 -8.460387384177183723e-01 -3.323113306657496935e-01 -4.168784386457453639e-01
-2.391628999313308301e-01 9.404740331173616630e-01 2.414740158451838259e-01 -2.391628999313308301e-01 9.404740331173616630e-01 2.414740158451838259e-01
-9.067678456168380974e-01 3.711264467852136151e-01 -2.000930649772254821e-01 -9.067678456168380974e-01 3.711264467852136151e-01 -2.000930649772254821e-01
-7.443154107383163076e-01 4.656226588337807337e-01 -4.787380378850337181e-01 -7.443154107383163076e-01 4.656226588337807337e-01 -4.787380378850337181e-01
-5.848013468529190684e-01 7.986777816330119517e-01 -1.418491658233584085e-01 -5.848013468529190684e-01 7.986777816330119517e-01 -1.418491658233584085e-01
1.423054106475815928e-01 -9.082339507635337483e-01 3.935228846978102712e-01 1.423054106475815928e-01 -9.082339507635337483e-01 3.935228846978102712e-01
-7.189451436257466854e-01 1.787042326695732486e-01 6.717013307139811928e-01 -7.189451436257466854e-01 1.787042326695732486e-01 6.717013307139811928e-01
9.601401014233267306e-01 1.767260869069634810e-01 -2.165614828296028582e-01 9.601401014233267306e-01 1.767260869069634810e-01 -2.165614828296028582e-01
8.948236988495610056e-03 -1.225338679483388427e-01 9.924239921829866029e-01 8.948236988495610056e-03 -1.225338679483388427e-01 9.924239921829866029e-01
9.685695514347182344e-01 1.220919224820493781e-01 -2.167177576900107538e-01 9.685695514347182344e-01 1.220919224820493781e-01 -2.167177576900107538e-01
-2.201249288303930296e-01 -9.527538076531300026e-01 -2.092969128054137373e-01 -2.201249288303930296e-01 -9.527538076531300026e-01 -2.092969128054137373e-01
4.322638610758108291e-01 -5.159658672554506831e-01 7.395452509719490086e-01 4.322638610758108291e-01 -5.159658672554506831e-01 7.395452509719490086e-01
-5.453485661000633256e-01 5.573314374583072245e-02 8.363544452807143426e-01 -5.453485661000633256e-01 5.573314374583072245e-02 8.363544452807143426e-01
-2.930142215740870748e-01 9.316573772247513929e-01 2.148422617131674761e-01 -2.930142215740870748e-01 9.316573772247513929e-01 2.148422617131674761e-01
8.582185480808965927e-01 1.354794031567034263e-01 -4.950820690049491102e-01 8.582185480808965927e-01 1.354794031567034263e-01 -4.950820690049491102e-01
7.999048867229502369e-01 4.195798924707970778e-01 -4.290744527828925792e-01 7.999048867229502369e-01 4.195798924707970778e-01 -4.290744527828925792e-01
-8.039716870590245534e-01 -5.812128121359613209e-01 -1.257823255329366119e-01 -8.039716870590245534e-01 -5.812128121359613209e-01 -1.257823255329366119e-01
-1.335585703215454688e-02 -9.992848140418717495e-01 3.537628454542273565e-02 -1.335585703215454688e-02 -9.992848140418717495e-01 3.537628454542273565e-02
-6.713781993215484079e-02 -4.413399479301771122e-01 8.948248786750099271e-01 -6.713781993215484079e-02 -4.413399479301771122e-01 8.948248786750099271e-01
-2.580665066797933616e-01 -3.534444912650776538e-01 -8.991544192876209651e-01 -2.580665066797933616e-01 -3.534444912650776538e-01 -8.991544192876209651e-01
6.357345429005550885e-01 6.617054660337272631e-01 3.974763731143149958e-01 6.357345429005550885e-01 6.617054660337272631e-01 3.974763731143149958e-01
-1.250171871487008035e-01 6.280547832871449243e-01 -7.680611252417114398e-01 -1.250171871487008035e-01 6.280547832871449243e-01 -7.680611252417114398e-01
-3.313751582586986766e-01 -6.613717522350318623e-01 -6.728877393998096146e-01 -3.313751582586986766e-01 -6.613717522350318623e-01 -6.728877393998096146e-01
2.944215733980435901e-01 -9.510673148070142302e-01 -9.373846501621545257e-02 2.944215733980435901e-01 -9.510673148070142302e-01 -9.373846501621545257e-02
-3.928331204246666708e-01 -2.950086259496549346e-01 8.710063433251883369e-01 -3.928331204246666708e-01 -2.950086259496549346e-01 8.710063433251883369e-01
-8.808841468002257535e-01 -4.271408030273985412e-01 2.039457141132107465e-01 -8.808841468002257535e-01 -4.271408030273985412e-01 2.039457141132107465e-01
-3.614579016306306847e-01 9.323866282535913097e-01 1.833249213966120549e-03 -3.614579016306306847e-01 9.323866282535913097e-01 1.833249213966120549e-03
-3.030882367008740363e-01 -7.856039315564260495e-01 5.394107743609142247e-01 -3.030882367008740363e-01 -7.856039315564260495e-01 5.394107743609142247e-01
-1.007705188903151167e-01 -4.573061943157640807e-01 8.835815452820465765e-01 -1.007705188903151167e-01 -4.573061943157640807e-01 8.835815452820465765e-01
-9.931854716084834722e-01 -4.702700536789765177e-03 1.164495753255271049e-01 -9.931854716084834722e-01 -4.702700536789765177e-03 1.164495753255271049e-01
2.086805691020802989e-01 -9.676283088101793606e-01 1.419432142385967099e-01 2.086805691020802989e-01 -9.676283088101793606e-01 1.419432142385967099e-01
7.735895151095580902e-01 1.064150030638059685e-01 -6.246880095179426773e-01 7.735895151095580902e-01 1.064150030638059685e-01 -6.246880095179426773e-01
-8.733326574225089844e-01 3.929664269756654171e-01 -2.878670817396769555e-01 -8.733326574225089844e-01 3.929664269756654171e-01 -2.878670817396769555e-01
1.597327298912347704e-01 7.864256772058033640e-01 5.966742069445332142e-01 1.597327298912347704e-01 7.864256772058033640e-01 5.966742069445332142e-01
-4.827378086445163752e-01 2.638076686564395663e-03 8.757609540602309117e-01 -4.827378086445163752e-01 2.638076686564395663e-03 8.757609540602309117e-01
7.136235922293499012e-01 7.002348116899816954e-01 -2.031199426876353215e-02 7.136235922293499012e-01 7.002348116899816954e-01 -2.031199426876353215e-02
-9.760301421962813695e-01 1.481577709220441574e-01 -1.594190592109920035e-01 -9.760301421962813695e-01 1.481577709220441574e-01 -1.594190592109920035e-01
3.640431238883186649e-01 -2.605906913425787841e-01 -8.941840389624673424e-01 3.640431238883186649e-01 -2.605906913425787841e-01 -8.941840389624673424e-01
-5.073443407012803164e-01 -2.918843717351032319e-01 8.108052993753723792e-01 -5.073443407012803164e-01 -2.918843717351032319e-01 8.108052993753723792e-01
-2.968664628887382473e-01 -9.433749494167463778e-01 -1.480338070336660594e-01 -2.968664628887382473e-01 -9.433749494167463778e-01 -1.480338070336660594e-01
8.815571038427290340e-02 9.752563325160191754e-01 2.027403675000318539e-01 8.815571038427290340e-02 9.752563325160191754e-01 2.027403675000318539e-01
-4.325936020489665190e-01 2.297325523907869371e-01 8.718289567560340014e-01 -4.325936020489665190e-01 2.297325523907869371e-01 8.718289567560340014e-01
1.135316539787756679e-01 -4.873712849592931051e-01 -8.657827638281850868e-01 1.135316539787756679e-01 -4.873712849592931051e-01 -8.657827638281850868e-01
-4.927567229265605864e-01 8.617444492303980574e-01 1.207779625232789644e-01 -4.927567229265605864e-01 8.617444492303980574e-01 1.207779625232789644e-01
-5.025823697936681045e-01 2.971586568720945842e-01 8.118544784741618114e-01 -5.025823697936681045e-01 2.971586568720945842e-01 8.118544784741618114e-01
-9.278629078157427656e-01 3.416056733288996283e-01 1.495860563328795800e-01 -9.278629078157427656e-01 3.416056733288996283e-01 1.495860563328795800e-01
-4.192464957907960366e-01 7.923829137434696968e-01 4.431271756217924906e-01 -4.192464957907960366e-01 7.923829137434696968e-01 4.431271756217924906e-01
9.153383016124159166e-01 -3.950453673892786455e-01 -7.807016911450892493e-02 9.153383016124159166e-01 -3.950453673892786455e-01 -7.807016911450892493e-02
-6.141132235489605851e-01 -5.500015273860436177e-02 7.872991374700181177e-01 -6.141132235489605851e-01 -5.500015273860436177e-02 7.872991374700181177e-01
-5.588370523343871854e-01 8.292743644693318927e-01 -2.275383967383322933e-03 -5.588370523343871854e-01 8.292743644693318927e-01 -2.275383967383322933e-03
-5.019022794084160299e-02 6.400046809324994035e-01 7.667300368472177441e-01 -5.019022794084160299e-02 6.400046809324994035e-01 7.667300368472177441e-01
8.175971830503951931e-01 1.593025249116340704e-03 -5.757884234148983316e-01 8.175971830503951931e-01 1.593025249116340704e-03 -5.757884234148983316e-01
8.793289123876153468e-01 3.109735470110895350e-01 -3.606606672463122387e-01 8.793289123876153468e-01 3.109735470110895350e-01 -3.606606672463122387e-01
-8.986522275851764885e-01 -1.426089370762195219e-01 4.148335388106789701e-01 -8.986522275851764885e-01 -1.426089370762195219e-01 4.148335388106789701e-01
6.569702450893313284e-01 7.527798900338282806e-01 -4.138277694791953065e-02 6.569702450893313284e-01 7.527798900338282806e-01 -4.138277694791953065e-02
3.767850763203473563e-01 -4.422446053769175656e-01 -8.139119825124118135e-01 3.767850763203473563e-01 -4.422446053769175656e-01 -8.139119825124118135e-01
-7.981177590928762999e-01 -8.185055634323125384e-02 5.969158475420710541e-01 -7.981177590928762999e-01 -8.185055634323125384e-02 5.969158475420710541e-01
8.510452257114342611e-01 4.213171758006530876e-01 -3.133909079235319695e-01 8.510452257114342611e-01 4.213171758006530876e-01 -3.133909079235319695e-01
9.398993961153478960e-02 -9.952561786831550794e-01 -2.512031139982380881e-02 9.398993961153478960e-02 -9.952561786831550794e-01 -2.512031139982380881e-02
9.417463048126379910e-01 2.826971280940269171e-01 1.821983291337524458e-01 9.417463048126379910e-01 2.826971280940269171e-01 1.821983291337524458e-01
-1.724580382516883448e-01 6.251120724704914977e-01 7.612444560678429673e-01 -1.724580382516883448e-01 6.251120724704914977e-01 7.612444560678429673e-01
5.872950968737953303e-01 7.693457688430452857e-01 2.513793093142371871e-01 5.872950968737953303e-01 7.693457688430452857e-01 2.513793093142371871e-01
6.072161046236852489e-01 -7.926328635462295269e-01 5.497040942308806244e-02 6.072161046236852489e-01 -7.926328635462295269e-01 5.497040942308806244e-02
7.293884053076161722e-01 -9.581567220651464323e-02 6.773565613193883728e-01 7.293884053076161722e-01 -9.581567220651464323e-02 6.773565613193883728e-01
-7.776174816931804568e-01 6.382271533944947062e-02 -6.254899784743602753e-01 -7.776174816931804568e-01 6.382271533944947062e-02 -6.254899784743602753e-01
-8.560643942206159762e-01 4.603441621808018192e-01 2.350255417901328525e-01 -8.560643942206159762e-01 4.603441621808018192e-01 2.350255417901328525e-01
-8.051064988515197474e-01 5.050819098872226798e-01 -3.109594665092597632e-01 -8.051064988515197474e-01 5.050819098872226798e-01 -3.109594665092597632e-01
6.832520169876897531e-02 6.284198596769877687e-01 -7.748678253588655584e-01 6.832520169876897531e-02 6.284198596769877687e-01 -7.748678253588655584e-01
-9.309367768611688243e-01 -3.128667473814684130e-01 1.883377706947782504e-01 -9.309367768611688243e-01 -3.128667473814684130e-01 1.883377706947782504e-01
-7.362100827066475617e-01 5.313265046660443636e-01 4.191501634980415725e-01 -7.362100827066475617e-01 5.313265046660443636e-01 4.191501634980415725e-01
9.614465500317225244e-01 -5.144017896490614417e-02 -2.701378156055850299e-01 9.614465500317225244e-01 -5.144017896490614417e-02 -2.701378156055850299e-01
-1.758750108466982931e-01 -6.601533813340111356e-01 7.302502952227718502e-01 -1.758750108466982931e-01 -6.601533813340111356e-01 7.302502952227718502e-01
-2.774152993291315594e-01 1.478405165229325358e-01 9.493070806500711889e-01 -2.774152993291315594e-01 1.478405165229325358e-01 9.493070806500711889e-01
-9.456101562110288405e-01 -1.416845007939153932e-02 -3.249933653059722816e-01 -9.456101562110288405e-01 -1.416845007939153932e-02 -3.249933653059722816e-01
-8.995322163418666417e-01 -4.172777607983008119e-01 -1.293099458906596388e-01 -8.995322163418666417e-01 -4.172777607983008119e-01 -1.293099458906596388e-01
-7.478563684976906600e-01 5.848825198291216498e-01 3.140434525599656856e-01 -7.478563684976906600e-01 5.848825198291216498e-01 3.140434525599656856e-01
8.138851286926397366e-01 -9.829145106127983034e-02 -5.726515414641205615e-01 8.138851286926397366e-01 -9.829145106127983034e-02 -5.726515414641205615e-01
7.723314274084491782e-01 -2.934431628122868840e-01 -5.633784486789932267e-01 7.723314274084491782e-01 -2.934431628122868840e-01 -5.633784486789932267e-01
9.072158504323675210e-01 -1.677497296052561648e-01 -3.857712132101612790e-01 9.072158504323675210e-01 -1.677497296052561648e-01 -3.857712132101612790e-01
-5.484020193840064561e-01 5.760023330974063382e-01 6.061984307154617557e-01 -5.484020193840064561e-01 5.760023330974063382e-01 6.061984307154617557e-01
2.567829302394662450e-01 9.605561986010447972e-01 -1.067441617454722574e-01 2.567829302394662450e-01 9.605561986010447972e-01 -1.067441617454722574e-01
4.771513468527303625e-01 -8.635871030565835937e-01 -1.629230113610815323e-01 4.771513468527303625e-01 -8.635871030565835937e-01 -1.629230113610815323e-01
4.900372175967316890e-01 -8.128124594150616389e-01 3.149594119719112961e-01 4.900372175967316890e-01 -8.128124594150616389e-01 3.149594119719112961e-01
9.859198989399879931e-01 1.566065131981295155e-01 -5.862041366357054195e-02 9.859198989399879931e-01 1.566065131981295155e-01 -5.862041366357054195e-02
-5.406285795675194183e-01 -6.535211070878765849e-02 8.387191666944976420e-01 -5.406285795675194183e-01 -6.535211070878765849e-02 8.387191666944976420e-01
2.263014805209302149e-01 3.959238468657662047e-01 8.899617673793904782e-01 2.263014805209302149e-01 3.959238468657662047e-01 8.899617673793904782e-01
4.093021930271025233e-01 -3.270983163349201472e-01 8.517502017810532067e-01 4.093021930271025233e-01 -3.270983163349201472e-01 8.517502017810532067e-01
6.399591734532069642e-01 -2.862867789345606151e-01 7.130863457677212303e-01 6.399591734532069642e-01 -2.862867789345606151e-01 7.130863457677212303e-01
4.275837923105507699e-01 -1.646209279538984327e-01 8.888599724551247139e-01 4.275837923105507699e-01 -1.646209279538984327e-01 8.888599724551247139e-01
-1.195165808502069343e-04 9.643908135628164180e-01 2.644812742547878459e-01 -1.195165808502069343e-04 9.643908135628164180e-01 2.644812742547878459e-01
4.732733022183983063e-01 1.051149242222795821e-01 8.746217663156097277e-01 4.732733022183983063e-01 1.051149242222795821e-01 8.746217663156097277e-01
-7.631803959481241462e-01 -8.931791562753003955e-02 6.399828069475131942e-01 -7.631803959481241462e-01 -8.931791562753003955e-02 6.399828069475131942e-01
-9.233994997280917660e-01 -3.174968731464151150e-01 -2.157060486962729950e-01 -9.233994997280917660e-01 -3.174968731464151150e-01 -2.157060486962729950e-01
-2.370733448349014449e-01 -5.482736103471023137e-01 8.019926915912299892e-01 -2.370733448349014449e-01 -5.482736103471023137e-01 8.019926915912299892e-01
